ncols        129
nrows        35
xllcorner    261699.126133739308
yllcorner    3810010.060357617214
dx           136.022111856398
dy           162.093016628873
NODATA_value -9999
-9999 -9999 -9999 12.438169479370117188 12.63571929931640625 12.794612884521484375 12.839159011840820312 12.358391761779785156 11.986443519592285156 12.412975311279296875 13.353834152221679688 13.86767578125 14.074091911315917969 14.112120628356933594 14.173215866088867188 14.188248634338378906 14.38694000244140625 14.481266975402832031 14.1767120361328125 14.098389625549316406 14.110325813293457031 14.083881378173828125 14.13283538818359375 14.326099395751953125 14.362673759460449219 14.391511917114257812 14.500157356262207031 14.703570365905761719 14.863379478454589844 14.909329414367675781 15.011503219604492188 15.133885383605957031 15.288684844970703125 15.566664695739746094 15.934325218200683594 16.18021392822265625 16.370212554931640625 16.572004318237304688 16.704179763793945312 16.7108917236328125 16.663669586181640625 16.644235610961914062 16.596048355102539062 16.60202789306640625 16.6360931396484375 16.678808212280273438 16.689531326293945312 16.723684310913085938 16.737043380737304688 16.72592926025390625 16.721769332885742188 16.718807220458984375 16.737705230712890625 16.7378387451171875 16.75812530517578125 16.749755859375 16.762750625610351562 16.841510772705078125 16.950643539428710938 17.03040313720703125 17.070095062255859375 17.067995071411132812 16.994939804077148438 16.89676666259765625 16.867321014404296875 16.857107162475585938 16.829587936401367188 16.910341262817382812 17.941650390625 19.452863693237304688 20.331792831420898438 20.520887374877929688 20.654222488403320312 20.8137359619140625 20.412176132202148438 20.30017852783203125 20.2129058837890625 19.748517990112304688 19.324993133544921875 18.58950042724609375 18.320661544799804688 15.565731048583984375 11.811554908752441406 9.40200042724609375 7.582447052001953125 5.3188934326171875 3.5810549259185791016 4.3073415756225585938 6.1058559417724609375 5.57416534423828125 4.9164900779724121094 7.2117929458618164062 10.508162498474121094 13.595414161682128906 16.320520401000976562 16.931854248046875 14.518021583557128906 11.888490676879882812 10.797150611877441406 10.076818466186523438 8.9925823211669921875 9.99839019775390625 10.650521278381347656 10.261843681335449219 8.392848968505859375 7.102123260498046875 6.3164300918579101562 6.1595869064331054688 5.4358067512512207031 4.7498712539672851562 4.2388401031494140625 7.1379795074462890625 9.139430999755859375 9.1961822509765625 8.5607690811157226562 8.5285406112670898438 8.0345220565795898438 4.7337293624877929688 2.4563355445861816406 2.5730428695678710938 -0.055554300546646118164 -1.1672272682189941406 -1.2099910974502563477 -1.2100000381469726562 -1.2100000381469726562 -1.2100000381469726562 -1.2100000381469726562 -1.2100000381469726562 -9999
-9999 -9999 -9999 11.60141754150390625 11.669023513793945312 11.802449226379394531 12.021218299865722656 12.306893348693847656 12.453368186950683594 12.70337677001953125 13.524121284484863281 14.284813880920410156 14.688825607299804688 14.486428260803222656 14.4716644287109375 14.581777572631835938 15.1966400146484375 16.127954483032226562 15.736040115356445312 15.176388740539550781 14.882241249084472656 14.686303138732910156 14.6118316650390625 14.605825424194335938 14.716168403625488281 14.899633407592773438 14.922957420349121094 14.969126701354980469 15.123406410217285156 15.299907684326171875 15.499400138854980469 15.63069915771484375 15.635416984558105469 15.78226470947265625 16.072607040405273438 16.288244247436523438 16.496171951293945312 16.742252349853515625 16.915746688842773438 16.83977508544921875 16.700429916381835938 16.658115386962890625 16.637475967407226562 16.646617889404296875 16.626348495483398438 16.628545761108398438 16.608591079711914062 16.666772842407226562 16.723489761352539062 16.750963211059570312 16.766086578369140625 16.752777099609375 16.75542449951171875 16.742937088012695312 16.751596450805664062 16.762371063232421875 16.741853713989257812 16.753381729125976562 16.772974014282226562 16.826593399047851562 16.935449600219726562 17.017099380493164062 17.024492263793945312 16.968679428100585938 16.923862457275390625 16.886478424072265625 16.906324386596679688 17.456762313842773438 19.318464279174804688 20.452150344848632812 20.400659561157226562 20.408998489379882812 20.738010406494140625 20.96143341064453125 20.451566696166992188 19.484893798828125 18.097776412963867188 17.931314468383789062 18.8597259521484375 19.12647247314453125 18.820962905883789062 16.878269195556640625 13.372262001037597656 11.2540435791015625 9.4986352920532226562 7.0328774452209472656 4.65419769287109375 5.0598721504211425781 8.1072664260864257812 7.6358952522277832031 5.6404891014099121094 5.7967152595520019531 8.2486066818237304688 11.303223609924316406 14.895178794860839844 16.896760940551757812 15.73764801025390625 13.807263374328613281 12.744947433471679688 11.523650169372558594 10.47512054443359375 10.669857978820800781 10.384192466735839844 9.6998567581176757812 7.8286499977111816406 5.7252860069274902344 4.6757884025573730469 3.2900414466857910156 2.2579481601715087891 2.3990879058837890625 5.0492558479309082031 7.660945892333984375 9.154399871826171875 8.9323415756225585938 7.09130096435546875 6.8452215194702148438 8.7684154510498046875 7.7708587646484375 6.6575727462768554688 7.258098602294921875 3.1994609832763671875 -0.40469458699226379395 -1.1563850641250610352 -1.2098555564880371094 -1.2100000381469726562 -1.2100000381469726562 -1.2092256546020507812 -1.209229588508605957 -9999
-9999 -9999 -9999 12.538617134094238281 12.632425308227539062 12.846457481384277344 13.139920234680175781 13.702938079833984375 14.031294822692871094 13.591577529907226562 13.695706367492675781 14.628688812255859375 14.7121429443359375 14.553584098815917969 14.686000823974609375 14.818993568420410156 15.390152931213378906 16.7387847900390625 17.070011138916015625 16.390857696533203125 15.862073898315429688 15.1221466064453125 14.871099472045898438 14.847501754760742188 14.982256889343261719 15.171114921569824219 15.307528495788574219 15.441145896911621094 15.620060920715332031 15.977014541625976562 16.244258880615234375 16.339508056640625 16.309209823608398438 16.25598907470703125 16.356786727905273438 16.460536956787109375 16.593717575073242188 16.859588623046875 17.0128173828125 16.94139862060546875 16.817010879516601562 16.737981796264648438 16.682428359985351562 16.639179229736328125 16.668653488159179688 16.68404388427734375 16.6072998046875 16.6474609375 16.646623611450195312 16.704645156860351562 16.770542144775390625 16.776357650756835938 16.776639938354492188 16.766752243041992188 16.775814056396484375 16.78444671630859375 16.76779937744140625 16.766937255859375 16.772563934326171875 16.769359588623046875 16.772798538208007812 16.807470321655273438 16.871734619140625 16.93175506591796875 16.953456878662109375 17.004364013671875 17.611492156982421875 19.029531478881835938 20.148954391479492188 20.176874160766601562 20.173589706420898438 20.67961883544921875 20.984598159790039062 20.612911224365234375 19.738986968994140625 17.727712631225585938 15.577738761901855469 17.383617401123046875 18.36206817626953125 18.695247650146484375 18.442804336547851562 16.372894287109375 14.092141151428222656 12.81987762451171875 10.850186347961425781 7.2632279396057128906 4.5269002914428710938 5.4132399559020996094 8.3136644363403320312 8.3396778106689453125 6.7106523513793945312 5.6767611503601074219 7.0046892166137695312 9.8455972671508789062 13.755293846130371094 16.231639862060546875 15.841772079467773438 14.241182327270507812 13.02216339111328125 12.128272056579589844 11.185171127319335938 10.202718734741210938 8.9502658843994140625 7.6146440505981445312 5.9696984291076660156 3.8773186206817626953 3.3853564262390136719 4.3459172248840332031 3.8863320350646972656 1.8943129777908325195 4.3832755088806152344 7.2417001724243164062 7.6692972183227539062 6.5554399490356445312 4.0114593505859375 5.1719336509704589844 7.4542822837829589844 8.2768497467041015625 7.4793066978454589844 5.4297628402709960938 2.5492351055145263672 0.41353476047515869141 -0.3805567324161529541 -0.92502915859222412109 -1.1727945804595947266 -1.1346611976623535156 -0.57908654212951660156 -0.34348154067993164062 -9999
-9999 -9999 -9999 12.569941520690917969 13.165592193603515625 13.827655792236328125 14.046666145324707031 14.318115234375 15.085972785949707031 14.767514228820800781 13.973863601684570312 14.115644454956054688 14.320597648620605469 14.591052055358886719 14.844706535339355469 14.920684814453125 15.196613311767578125 15.989480018615722656 16.874996185302734375 17.018636703491210938 16.646564483642578125 15.942069053649902344 15.309090614318847656 15.200375556945800781 15.285365104675292969 15.428125381469726562 15.622323036193847656 15.840877532958984375 16.037511825561523438 16.280355453491210938 16.43854522705078125 16.522577285766601562 16.612337112426757812 16.534791946411132812 16.530956268310546875 16.5876617431640625 16.664287567138671875 16.863231658935546875 17.01512908935546875 16.97922515869140625 16.867048263549804688 16.824331283569335938 16.777894973754882812 16.710054397583007812 16.708330154418945312 16.676050186157226562 16.66046905517578125 16.74608612060546875 16.695438385009765625 16.691852569580078125 16.773622512817382812 16.80218505859375 16.7972564697265625 16.788896560668945312 16.783796310424804688 16.79103851318359375 16.799930572509765625 16.803873062133789062 16.813091278076171875 16.807588577270507812 16.79312896728515625 16.8114166259765625 16.909463882446289062 17.091436386108398438 17.292201995849609375 18.004329681396484375 19.168119430541992188 19.859609603881835938 19.8518218994140625 19.84085845947265625 20.445421218872070312 21.026868820190429688 20.9460601806640625 19.056596755981445312 17.638767242431640625 15.486658096313476562 13.937884330749511719 16.627668380737304688 17.220012664794921875 17.429845809936523438 16.917901992797851562 14.016317367553710938 12.978837013244628906 12.300699234008789062 10.085191726684570312 6.0966658592224121094 4.2534456253051757812 6.6024279594421386719 9.065399169921875 9.26116943359375 7.7947478294372558594 6.1194710731506347656 6.6698184013366699219 9.2192325592041015625 12.628329277038574219 14.772196769714355469 15.109453201293945312 14.705061912536621094 14.263166427612304688 13.201703071594238281 11.049413681030273438 9.102527618408203125 7.6798844337463378906 6.1240229606628417969 4.9578189849853515625 4.3286709785461425781 5.0588698387145996094 5.9374737739562988281 5.0205302238464355469 2.5645453929901123047 1.85552215576171875 4.4040808677673339844 3.6706855297088623047 2.023845672607421875 2.3874173164367675781 4.3465847969055175781 6.1504955291748046875 7.4131712913513183594 7.9105677604675292969 6.95052337646484375 4.7781658172607421875 3.3109226226806640625 2.0743248462677001953 0.022394444793462753296 -0.78651130199432373047 -0.2291040569543838501 1.1962705850601196289 1.8385354280471801758 -9999
-9999 -9999 -9999 10.778248786926269531 11.525200843811035156 12.277952194213867188 12.892530441284179688 13.6469879150390625 14.709832191467285156 14.778799057006835938 14.432349205017089844 14.247332572937011719 14.57177734375 14.747132301330566406 14.992824554443359375 15.008994102478027344 15.084906578063964844 15.44281768798828125 16.331592559814453125 16.84119415283203125 16.721357345581054688 16.301395416259765625 15.727300643920898438 15.5292510986328125 15.575840950012207031 15.674364089965820312 15.832395553588867188 15.989931106567382812 16.1035919189453125 16.286167144775390625 16.413906097412109375 16.502656936645507812 16.644039154052734375 16.627328872680664062 16.606843948364257812 16.651681900024414062 16.7217864990234375 16.813518524169921875 16.9081573486328125 16.929304122924804688 16.847936630249023438 16.8284149169921875 16.85823822021484375 16.879779815673828125 16.832073211669921875 16.713758468627929688 16.7101898193359375 16.755336761474609375 16.763698577880859375 16.746530532836914062 16.781442642211914062 16.791135787963867188 16.811321258544921875 16.845956802368164062 16.85144805908203125 16.848104476928710938 16.843875885009765625 16.849534988403320312 16.852869033813476562 16.829296112060546875 16.831678390502929688 16.92758941650390625 17.282024383544921875 17.718475341796875 18.225093841552734375 18.965154647827148438 19.340423583984375 19.374103546142578125 19.5564422607421875 20.1448516845703125 20.820123672485351562 21.20981597900390625 20.220462799072265625 16.275859832763671875 13.920212745666503906 12.434714317321777344 12.466916084289550781 14.917520523071289062 14.542866706848144531 13.661496162414550781 12.758335113525390625 11.200873374938964844 10.689481735229492188 10.210192680358886719 7.9655790328979492188 5.0420513153076171875 4.88082122802734375 8.3523130416870117188 10.623621940612792969 10.902237892150878906 10.090908050537109375 8.0039949417114257812 6.9282846450805664062 8.373691558837890625 10.636097908020019531 12.403382301330566406 14.02652740478515625 15.098122596740722656 15.196980476379394531 13.547075271606445312 10.998075485229492188 9.4810810089111328125 8.750255584716796875 7.470306396484375 6.3847789764404296875 6.067005157470703125 6.2476139068603515625 5.8934922218322753906 4.3155369758605957031 2.9480390548706054688 1.8101060390472412109 0.91243183612823486328 0.83293592929840087891 0.80699354410171508789 2.6096923351287841797 4.756450653076171875 6.5450611114501953125 6.7847094535827636719 6.1650958061218261719 5.168704986572265625 4.7040348052978515625 4.2614235877990722656 2.0742847919464111328 -0.33578708767890930176 -0.63080942630767822266 -0.18256191909313201904 1.3207963705062866211 2.4032969474792480469 -9999
-9999 -9999 -9999 10.323250770568847656 10.406487464904785156 10.654348373413085938 11.8423614501953125 13.34033966064453125 14.345357894897460938 15.130564689636230469 14.700674057006835938 14.631903648376464844 14.687584877014160156 14.732294082641601562 14.917290687561035156 15.334530830383300781 15.765058517456054688 16.257537841796875 16.803318023681640625 16.896697998046875 16.563854217529296875 16.05194091796875 15.7272796630859375 15.641256332397460938 15.689617156982421875 15.786228179931640625 15.936505317687988281 16.06935882568359375 16.21402740478515625 16.450738906860351562 16.56885528564453125 16.637342453002929688 16.722185134887695312 16.705183029174804688 16.70291900634765625 16.713069915771484375 16.739984512329101562 16.759006500244140625 16.778451919555664062 16.823144912719726562 16.811166763305664062 16.798257827758789062 16.833629608154296875 16.8845367431640625 16.85684967041015625 16.748601913452148438 16.752626419067382812 16.78827667236328125 16.82840728759765625 16.795827865600585938 16.820123672485351562 16.85540771484375 16.94536590576171875 17.029783248901367188 17.0364837646484375 17.035350799560546875 17.02490234375 17.052947998046875 17.0749969482421875 17.106367111206054688 17.332904815673828125 17.837493896484375 18.6312255859375 18.97322845458984375 18.771205902099609375 18.814783096313476562 19.2458953857421875 19.654222488403320312 20.066043853759765625 20.721385955810546875 21.1622467041015625 20.932903289794921875 17.890438079833984375 15.003849983215332031 14.897785186767578125 13.359030723571777344 10.923330307006835938 10.891985893249511719 10.152651786804199219 9.2386074066162109375 8.3562574386596679688 8.0087890625 7.6938157081604003906 7.39995574951171875 6.0542669296264648438 4.7466654777526855469 5.6791286468505859375 8.5663242340087890625 10.315348625183105469 11.695568084716796875 12.693264961242675781 11.34515380859375 9.1871585845947265625 8.0093355178833007812 8.395427703857421875 10.09822845458984375 12.381036758422851562 14.222617149353027344 14.913640022277832031 13.775913238525390625 12.145526885986328125 10.950460433959960938 9.9968461990356445312 9.3200998306274414062 8.0833177566528320312 7.561672210693359375 7.114471435546875 6.0080404281616210938 4.4445652961730957031 4.2989869117736816406 3.0712234973907470703 0.79039680957794189453 0.40344583988189697266 0.76331257820129394531 2.8305120468139648438 4.3758454322814941406 4.5311722755432128906 4.1739439964294433594 2.8854801654815673828 1.6696209907531738281 1.6030920743942260742 1.3521720170974731445 0.069923914968967437744 -0.094639822840690612793 0.66460615396499633789 0.52423304319381713867 0.84034180641174316406 1.4653086662292480469 -9999
-9999 -9999 -9999 10.396066665649414062 10.354914665222167969 10.678842544555664062 11.899160385131835938 13.410296440124511719 13.967871665954589844 14.92348480224609375 15.062108993530273438 15.352421760559082031 15.318509101867675781 15.494326591491699219 15.83315277099609375 16.47714996337890625 17.068914413452148438 17.019498825073242188 16.833280563354492188 16.494775772094726562 15.965893745422363281 15.682004928588867188 15.633763313293457031 15.656160354614257812 15.703148841857910156 15.7790069580078125 15.897130012512207031 16.035587310791015625 16.22894287109375 16.446685791015625 16.560132980346679688 16.700242996215820312 16.823223114013671875 16.794170379638671875 16.75901031494140625 16.7384490966796875 16.746612548828125 16.776868820190429688 16.76328277587890625 16.74623870849609375 16.774631500244140625 16.863958358764648438 16.820821762084960938 16.765539169311523438 16.740743637084960938 16.736005783081054688 16.80574798583984375 16.880376815795898438 16.96834564208984375 17.039529800415039062 17.20433807373046875 17.306394577026367188 17.463937759399414062 17.57569122314453125 17.481672286987304688 17.388202667236328125 17.343122482299804688 17.5643310546875 17.86849212646484375 18.307760238647460938 18.899530410766601562 19.4830322265625 20.065242767333984375 20.018121719360351562 19.458675384521484375 19.480047225952148438 19.853590011596679688 20.191488265991210938 20.652986526489257812 21.018075942993164062 21.251031875610351562 19.86486053466796875 17.617565155029296875 17.301113128662109375 17.31133270263671875 15.984034538269042969 11.881689071655273438 9.7758693695068359375 9.915988922119140625 9.7952489852905273438 8.4560899734497070312 7.6911854743957519531 7.075191497802734375 6.6001725196838378906 5.8307399749755859375 6.0871253013610839844 7.7156748771667480469 10.071816444396972656 12.489357948303222656 14.800931930541992188 16.068431854248046875 14.838503837585449219 11.895936012268066406 9.3359556198120117188 8.403461456298828125 8.839263916015625 10.633837699890136719 12.650026321411132812 14.236710548400878906 14.768939018249511719 13.635267257690429688 11.844385147094726562 11.151811599731445312 10.454201698303222656 9.2706689834594726562 9.2974758148193359375 7.9328212738037109375 6.2408967018127441406 5.6180505752563476562 5.6870031356811523438 4.5284342765808105469 2.5575122833251953125 1.5367667675018310547 0.64456379413604736328 1.0554592609405517578 1.9112395048141479492 1.4444432258605957031 0.44613462686538696289 0.026537429541349411011 -0.19102513790130615234 -0.28521013259887695312 -0.60656797885894775391 -0.31344741582870483398 1.1618589162826538086 1.8503993749618530273 1.3196479082107543945 1.122111201286315918 1.26157379150390625 -9999
-9999 -9999 -9999 10.28615570068359375 10.320016860961914062 10.564311981201171875 10.975975990295410156 11.954201698303222656 12.563281059265136719 13.370650291442871094 14.158703804016113281 14.501367568969726562 14.668947219848632812 15.071046829223632812 15.552808761596679688 16.047412872314453125 16.15019989013671875 15.963080406188964844 15.627679824829101562 15.278100013732910156 15.115222930908203125 15.398856163024902344 15.621063232421875 15.720602989196777344 15.770785331726074219 15.8137664794921875 15.888684272766113281 16.0284576416015625 16.236171722412109375 16.41800689697265625 16.5530242919921875 16.754047393798828125 16.980573654174804688 17.012445449829101562 16.918241500854492188 16.838527679443359375 16.88196563720703125 16.890619277954101562 16.830099105834960938 16.738924026489257812 16.71820068359375 16.867238998413085938 16.824855804443359375 16.7397613525390625 16.730815887451171875 16.77166748046875 16.885957717895507812 17.059642791748046875 17.285852432250976562 17.57268524169921875 17.977472305297851562 18.245706558227539062 18.517269134521484375 18.580875396728515625 18.34499359130859375 18.223154067993164062 18.308042526245117188 18.790592193603515625 19.151920318603515625 19.492311477661132812 20.024614334106445312 20.387292861938476562 20.464935302734375 20.102443695068359375 19.73656463623046875 19.760335922241210938 20.016347885131835938 20.518716812133789062 21.005786895751953125 21.3361968994140625 21.156969070434570312 19.70306396484375 19.4107208251953125 18.084154129028320312 17.271451950073242188 14.786798477172851562 12.693232536315917969 12.199316024780273438 12.843877792358398438 12.444650650024414062 10.647508621215820312 9.1709108352661132812 8.382884979248046875 6.9947304725646972656 5.8268976211547851562 7.0826373100280761719 9.5899448394775390625 12.574358940124511719 16.074527740478515625 18.571779251098632812 19.132860183715820312 17.415220260620117188 13.928483009338378906 11.379055976867675781 10.282458305358886719 8.98131561279296875 10.225335121154785156 12.4279632568359375 14.455870628356933594 15.942166328430175781 14.789337158203125 13.060975074768066406 12.062870025634765625 11.203916549682617188 10.901080131530761719 10.483842849731445312 8.9019155502319335938 9.2012052536010742188 8.5926599502563476562 7.1225881576538085938 4.4334855079650878906 1.8959487676620483398 0.87058568000793457031 0.9145997166633605957 0.85508173704147338867 0.78208559751510620117 0.61190396547317504883 0.34518405795097351074 1.1140310764312744141 1.400363922119140625 0.45343309640884399414 -0.038039661943912506104 1.4791722297668457031 2.8781640529632568359 2.6267848014831542969 2.1187908649444580078 2.2531001567840576172 1.8314300775527954102 -9999
-9999 -9999 -9999 10.515543937683105469 10.567731857299804688 10.716887474060058594 10.472515106201171875 10.561580657958984375 10.799558639526367188 11.509494781494140625 12.750216484069824219 13.084576606750488281 13.4319915771484375 13.534541130065917969 13.699872970581054688 14.270430564880371094 14.476939201354980469 14.327383041381835938 14.2572784423828125 14.559800148010253906 15.017391204833984375 15.602098464965820312 15.712345123291015625 15.745938301086425781 15.783664703369140625 15.828339576721191406 15.924880027770996094 16.04557037353515625 16.137302398681640625 16.259565353393554688 16.375644683837890625 16.64928436279296875 16.924695968627929688 17.016138076782226562 16.987453460693359375 16.902437210083007812 16.86746978759765625 16.839672088623046875 16.788585662841796875 16.686279296875 16.554790496826171875 16.647205352783203125 16.708353042602539062 16.700975418090820312 16.732250213623046875 16.807271957397460938 16.975847244262695312 17.224847793579101562 17.5707855224609375 17.897371292114257812 18.200216293334960938 18.474428176879882812 18.752048492431640625 18.859853744506835938 18.83789825439453125 18.982313156127929688 19.231655120849609375 19.69991302490234375 19.84033966064453125 19.666118621826171875 19.954217910766601562 20.327421188354492188 20.313177108764648438 20.138513565063476562 19.934759140014648438 19.877599716186523438 20.190149307250976562 20.749986648559570312 21.196195602416992188 21.617750167846679688 21.0107574462890625 20.243661880493164062 19.779779434204101562 18.5011749267578125 16.215211868286132812 14.942412376403808594 16.022045135498046875 15.795558929443359375 14.757908821105957031 13.202403068542480469 11.191262245178222656 9.6206836700439453125 8.5593328475952148438 6.5344572067260742188 5.6098928451538085938 7.7211318016052246094 10.225931167602539062 12.51578521728515625 16.375171661376953125 19.761539459228515625 20.363122940063476562 18.695917129516601562 15.921343803405761719 13.435394287109375 12.045735359191894531 10.016869544982910156 10.738132476806640625 13.718832015991210938 15.985538482666015625 16.902673721313476562 16.077009201049804688 14.661525726318359375 13.22309112548828125 13.253511428833007812 13.319977760314941406 11.943854331970214844 11.688311576843261719 12.905176162719726562 10.875036239624023438 6.9216694831848144531 3.0701367855072021484 2.4107077121734619141 1.4417518377304077148 1.8691731691360473633 2.0140163898468017578 2.0987133979797363281 3.1833579540252685547 2.9485383033752441406 1.9456362724304199219 0.89560705423355102539 1.5080103874206542969 1.7461670637130737305 2.1645264625549316406 3.5647594928741455078 3.6725666522979736328 3.0724055767059326172 3.65683746337890625 3.4151051044464111328 -9999
-9999 -9999 -9999 11.873053550720214844 11.890130996704101562 12.161814689636230469 11.244890213012695312 10.706400871276855469 10.491540908813476562 10.640523910522460938 11.312350273132324219 11.518378257751464844 12.233866691589355469 12.761696815490722656 12.953700065612792969 13.307664871215820312 13.305086135864257812 13.720170974731445312 14.519395828247070312 15.101238250732421875 15.29113006591796875 15.525330543518066406 15.707218170166015625 15.782712936401367188 15.800818443298339844 15.792179107666015625 15.924563407897949219 16.062997817993164062 16.207029342651367188 16.34508514404296875 16.419618606567382812 16.601358413696289062 16.788850784301757812 16.853639602661132812 16.835012435913085938 16.732168197631835938 16.662157058715820312 16.627283096313476562 16.554056167602539062 16.421323776245117188 16.382459640502929688 16.453672409057617188 16.536403656005859375 16.576061248779296875 16.630046844482421875 16.728214263916015625 16.990207672119140625 17.273080825805664062 17.729269027709960938 18.151048660278320312 18.364742279052734375 18.527276992797851562 18.707979202270507812 18.964551925659179688 19.1271820068359375 19.293331146240234375 19.543201446533203125 19.819387435913085938 19.894866943359375 19.768430709838867188 19.87961578369140625 20.14871978759765625 20.254373550415039062 20.2462158203125 20.159503936767578125 20.164012908935546875 20.466970443725585938 20.921976089477539062 21.512796401977539062 21.621263504028320312 20.875379562377929688 19.9073333740234375 18.331518173217773438 17.812774658203125 17.094244003295898438 17.597364425659179688 17.380016326904296875 16.06200408935546875 13.86956024169921875 11.256702423095703125 9.0647945404052734375 8.1120290756225585938 7.2725276947021484375 5.986255645751953125 5.5463671684265136719 7.0776877403259277344 8.9036092758178710938 11.254296302795410156 16.133098602294921875 20.026355743408203125 20.249301910400390625 18.488195419311523438 16.567201614379882812 14.69652557373046875 13.295047760009765625 11.110833168029785156 10.956440925598144531 13.805142402648925781 16.240772247314453125 17.488168716430664062 17.678585052490234375 16.023561477661132812 15.778607368469238281 16.463987350463867188 16.167980194091796875 14.584352493286132812 15.615952491760253906 14.978627204895019531 10.746873855590820312 5.9407835006713867188 4.1046671867370605469 4.4025373458862304688 2.8956992626190185547 2.5618011951446533203 3.4218647480010986328 3.5859305858612060547 4.1303529739379882812 2.5977492332458496094 1.4038949012756347656 1.3057320117950439453 1.9174816608428955078 2.9392240047454833984 3.5425777435302734375 4.7188329696655273438 5.3918170928955078125 4.8445796966552734375 6.1091485023498535156 5.6503624916076660156 -9999
-9999 -9999 -9999 13.540750503540039062 13.476041793823242188 13.788324356079101562 13.053216934204101562 11.744757652282714844 11.046536445617675781 10.992593765258789062 11.162527084350585938 10.809840202331542969 10.962697029113769531 11.611993789672851562 12.260944366455078125 12.73711395263671875 13.148385047912597656 14.062113761901855469 14.761178016662597656 15.209916114807128906 15.332423210144042969 15.442844390869140625 15.630366325378417969 15.770284652709960938 15.760799407958984375 15.685244560241699219 15.717854499816894531 15.921538352966308594 16.250333786010742188 16.410833358764648438 16.437221527099609375 16.567064285278320312 16.67535400390625 16.693487167358398438 16.710489273071289062 16.673349380493164062 16.558019638061523438 16.368848800659179688 16.120153427124023438 16.040645599365234375 16.291318893432617188 16.349987030029296875 16.385393142700195312 16.451442718505859375 16.471426010131835938 16.594648361206054688 16.94744110107421875 17.365116119384765625 17.9078826904296875 18.387693405151367188 18.64577484130859375 18.88736724853515625 19.169954299926757812 19.598497390747070312 19.770559310913085938 19.747030258178710938 19.791950225830078125 19.822824478149414062 19.851690292358398438 19.839681625366210938 19.968400955200195312 20.113702774047851562 20.165699005126953125 20.1949920654296875 20.303661346435546875 20.438764572143554688 20.735439300537109375 21.272935867309570312 21.775806427001953125 21.471569061279296875 20.779008865356445312 19.2496337890625 17.105844497680664062 18.044736862182617188 18.68674468994140625 17.430866241455078125 15.511542320251464844 13.563532829284667969 11.561199188232421875 9.5974454879760742188 8.574344635009765625 8.22737884521484375 6.9760203361511230469 6.077693939208984375 6.1589922904968261719 7.7004232406616210938 9.6877498626708984375 12.380265235900878906 16.957479476928710938 20.020807266235351562 19.625562667846679688 17.616960525512695312 15.887001991271972656 14.681955337524414062 13.507350921630859375 12.414615631103515625 12.25955963134765625 14.258561134338378906 16.5423126220703125 18.44153594970703125 18.906337738037109375 17.502977371215820312 18.017435073852539062 18.584768295288085938 18.256402969360351562 17.311380386352539062 16.751705169677734375 14.021188735961914062 8.9831914901733398438 6.3251323699951171875 6.5193376541137695312 6.3086452484130859375 4.0292935371398925781 2.5893738269805908203 3.8914568424224853516 4.8565196990966796875 4.4925341606140136719 3.2898054122924804688 1.9507374763488769531 1.9783383607864379883 2.0155181884765625 2.3701627254486083984 3.3763589859008789062 5.3278460502624511719 7.3319044113159179688 7.7686343193054199219 9.0026979446411132812 7.1659517288208007812 -9999
-9999 -9999 -9999 14.295931816101074219 14.350342750549316406 14.584074974060058594 14.383202552795410156 13.417600631713867188 12.576428413391113281 12.417244911193847656 12.30278778076171875 11.479312896728515625 10.993155479431152344 10.906094551086425781 11.32575225830078125 12.06817626953125 12.9852294921875 13.814696311950683594 14.429314613342285156 15.123280525207519531 15.359041213989257812 15.308637619018554688 15.275124549865722656 15.253409385681152344 15.490916252136230469 15.620569229125976562 15.555215835571289062 15.543795585632324219 15.677509307861328125 15.987372398376464844 16.260866165161132812 16.502679824829101562 16.584836959838867188 16.577325820922851562 16.61590576171875 16.6473388671875 16.547746658325195312 16.2503814697265625 15.766803741455078125 15.580691337585449219 16.110330581665039062 16.22406768798828125 16.175710678100585938 16.299623489379882812 16.421571731567382812 16.5488433837890625 16.964855194091796875 17.550050735473632812 17.960699081420898438 18.199728012084960938 18.304574966430664062 18.536008834838867188 18.93424224853515625 19.487583160400390625 19.817768096923828125 19.810207366943359375 19.808473587036132812 19.811384201049804688 19.780286788940429688 19.7942047119140625 19.879621505737304688 20.012176513671875 20.149213790893554688 20.197992324829101562 20.279302597045898438 20.50931549072265625 21.028812408447265625 21.652711868286132812 21.887807846069335938 21.214374542236328125 20.641286849975585938 19.281436920166015625 17.358274459838867188 17.41181182861328125 17.79636383056640625 15.825722694396972656 12.747040748596191406 10.857112884521484375 9.7106952667236328125 9.0242395401000976562 8.3290281295776367188 7.59271240234375 6.9805264472961425781 7.2238836288452148438 8.416133880615234375 10.290318489074707031 12.709564208984375 15.437480926513671875 18.286085128784179688 19.65581512451171875 19.170650482177734375 17.631052017211914062 16.239583969116210938 15.614626884460449219 14.877246856689453125 14.776192665100097656 15.1258087158203125 16.728441238403320312 18.694440841674804688 19.843976974487304688 19.5960845947265625 18.826854705810546875 18.887851715087890625 18.782423019409179688 18.354696273803710938 17.730619430541992188 16.621290206909179688 13.248676300048828125 9.6008434295654296875 8.8711090087890625 8.8441791534423828125 7.0891475677490234375 4.4124064445495605469 3.7763988971710205078 5.1782016754150390625 6.0144166946411132812 6.107089996337890625 3.7626211643218994141 1.7763336896896362305 3.0120627880096435547 4.0260720252990722656 4.9057602882385253906 5.379314422607421875 7.572963714599609375 9.5400638580322265625 10.418292999267578125 10.977636337280273438 9.2545957565307617188 -9999
-9999 -9999 -9999 13.8734283447265625 14.207672119140625 14.538683891296386719 14.668896675109863281 14.609195709228515625 14.116671562194824219 14.051942825317382812 13.874901771545410156 13.096375465393066406 12.035895347595214844 11.140834808349609375 11.014593124389648438 11.477319717407226562 12.279218673706054688 12.805789947509765625 13.446805953979492188 14.400656700134277344 14.813860893249511719 14.628953933715820312 14.472941398620605469 14.157396316528320312 14.183455467224121094 14.287533760070800781 14.702733039855957031 14.931932449340820312 15.035797119140625 15.321967124938964844 15.5952301025390625 15.85416412353515625 16.148611068725585938 16.405412673950195312 16.581541061401367188 16.624052047729492188 16.525747299194335938 16.2161712646484375 15.761247634887695312 15.17427825927734375 15.611275672912597656 15.790240287780761719 15.899136543273925781 16.155084609985351562 16.348459243774414062 16.408374786376953125 16.937162399291992188 17.692874908447265625 18.138874053955078125 18.340101242065429688 18.21607208251953125 18.191617965698242188 18.314220428466796875 18.631381988525390625 19.069904327392578125 19.425624847412109375 19.651620864868164062 19.697681427001953125 19.667139053344726562 19.724382400512695312 19.78820037841796875 19.859113693237304688 20.055978775024414062 20.26093292236328125 20.34039306640625 20.6744232177734375 21.248895645141601562 21.935863494873046875 21.744907379150390625 21.034807205200195312 20.454372406005859375 19.08315277099609375 17.000406265258789062 16.753538131713867188 17.073841094970703125 15.446797370910644531 12.016096115112304688 11.251916885375976562 10.622414588928222656 9.1437005996704101562 8.6259021759033203125 8.6483469009399414062 7.8237271308898925781 7.9888186454772949219 8.8073911666870117188 10.184810638427734375 12.725107192993164062 16.024053573608398438 17.641387939453125 17.922853469848632812 18.583902359008789062 18.10797119140625 17.395009994506835938 17.029165267944335938 16.318393707275390625 16.40091705322265625 17.270708084106445312 18.985942840576171875 20.708650588989257812 20.633769989013671875 19.54620361328125 18.848436355590820312 18.81923675537109375 18.5503997802734375 17.788311004638671875 17.027021408081054688 16.3083343505859375 14.7466888427734375 12.4979400634765625 10.89034271240234375 8.8204755783081054688 5.3620100021362304688 4.1339130401611328125 5.7553210258483886719 6.80637359619140625 7.1294398307800292969 6.5334730148315429688 3.7252902984619140625 2.0369660854339599609 2.7901096343994140625 4.2475028038024902344 5.0091204643249511719 6.8756270408630371094 10.052051544189453125 11.244835853576660156 11.576542854309082031 11.774312019348144531 11.406939506530761719 -9999
-9999 -9999 -9999 12.712075233459472656 13.339471817016601562 13.921991348266601562 14.282126426696777344 14.581854820251464844 14.619858741760253906 14.572948455810546875 14.473839759826660156 14.241635322570800781 13.448693275451660156 11.909208297729492188 11.060334205627441406 11.065939903259277344 11.204438209533691406 11.373249053955078125 11.739613533020019531 12.397549629211425781 12.920352935791015625 13.171842575073242188 13.285462379455566406 12.856759071350097656 12.508101463317871094 12.51340484619140625 13.088366508483886719 13.703060150146484375 14.074970245361328125 14.593311309814453125 14.793684959411621094 14.971645355224609375 15.330091476440429688 15.881421089172363281 16.400144577026367188 16.489482879638671875 16.348615646362304688 15.911808967590332031 15.526441574096679688 14.818674087524414062 15.097193717956542969 15.530257225036621094 15.957853317260742188 16.196109771728515625 16.183416366577148438 16.134038925170898438 16.750675201416015625 17.624185562133789062 18.260889053344726562 18.7208099365234375 18.743152618408203125 18.744302749633789062 18.760339736938476562 18.659982681274414062 18.7415008544921875 19.205175399780273438 19.522308349609375 19.62052154541015625 19.6742095947265625 19.733156204223632812 19.739543914794921875 19.82647705078125 19.897241592407226562 20.059690475463867188 20.29528045654296875 20.68609619140625 21.37036895751953125 21.948564529418945312 21.438879013061523438 20.855802536010742188 20.078399658203125 18.421197891235351562 16.104167938232421875 15.281453132629394531 15.495431900024414062 13.9478607177734375 12.287149429321289062 12.516511917114257812 11.665440559387207031 9.8373117446899414062 9.3547105789184570312 10.0697174072265625 10.018609046936035156 10.391130447387695312 10.103465080261230469 9.6837415695190429688 11.52758026123046875 14.301400184631347656 15.042486190795898438 15.526936531066894531 16.743207931518554688 16.447422027587890625 16.125017166137695312 16.048971176147460938 15.818118095397949219 16.362949371337890625 17.82717132568359375 19.481119155883789062 21.007625579833984375 20.652370452880859375 18.78598785400390625 17.865835189819335938 18.765436172485351562 18.852113723754882812 18.046360015869140625 16.855070114135742188 15.332823753356933594 14.984617233276367188 14.431623458862304688 11.913657188415527344 8.2487859725952148438 5.9806456565856933594 6.77417755126953125 8.0100736618041992188 8.5471858978271484375 8.0142698287963867188 5.8048949241638183594 3.286968231201171875 3.1847567558288574219 4.0171999931335449219 3.2098393440246582031 5.0043816566467285156 8.9242992401123046875 10.67235565185546875 10.875873565673828125 11.557507514953613281 11.886698722839355469 12.001413345336914062 -9999
-9999 -9999 -9999 12.444688796997070312 13.213152885437011719 13.895311355590820312 14.070344924926757812 14.429901123046875 14.550011634826660156 14.514916419982910156 14.480852127075195312 14.334044456481933594 13.741589546203613281 12.390422821044921875 11.388772964477539062 11.467470169067382812 11.572752952575683594 11.428275108337402344 11.346533775329589844 11.411283493041992188 11.570469856262207031 11.860652923583984375 12.129761695861816406 11.96920013427734375 11.810399055480957031 11.908497810363769531 12.224434852600097656 12.732126235961914062 13.074969291687011719 13.798123359680175781 14.693354606628417969 15.053829193115234375 15.368396759033203125 15.744226455688476562 15.996619224548339844 15.926972389221191406 15.782628059387207031 15.196546554565429688 14.860436439514160156 14.609234809875488281 15.152498245239257812 15.538811683654785156 15.866262435913085938 16.036176681518554688 15.921483039855957031 15.829182624816894531 16.3973236083984375 17.368297576904296875 18.165159225463867188 18.78536224365234375 19.237884521484375 19.631113052368164062 19.881784439086914062 19.649774551391601562 19.403707504272460938 19.540699005126953125 19.61962890625 19.750211715698242188 19.81858062744140625 19.806377410888671875 19.79238128662109375 19.779600143432617188 19.670291900634765625 19.550046920776367188 19.864246368408203125 20.459123611450195312 21.387508392333984375 21.711000442504882812 21.157390594482421875 20.396577835083007812 19.163135528564453125 17.680707931518554688 16.816217422485351562 15.753127098083496094 14.644578933715820312 14.481940269470214844 14.302144050598144531 13.723272323608398438 13.033059120178222656 11.299951553344726562 9.811100006103515625 10.76801300048828125 12.534305572509765625 13.470571517944335938 12.49573516845703125 10.281900405883789062 10.6695556640625 12.597543716430664062 13.182985305786132812 13.691148757934570312 14.247638702392578125 14.206851005554199219 14.551504135131835938 15.415904045104980469 16.051488876342773438 16.532154083251953125 17.206951141357421875 17.91046905517578125 19.153560638427734375 19.611724853515625 17.798919677734375 16.949420928955078125 18.557058334350585938 18.748889923095703125 17.781610488891601562 16.21616363525390625 14.398014068603515625 13.709319114685058594 13.309227943420410156 11.002562522888183594 8.3007984161376953125 8.3147935867309570312 9.3429021835327148438 9.7084808349609375 9.859172821044921875 8.9978017807006835938 6.3887948989868164062 4.6071414947509765625 6.3176698684692382812 8.338039398193359375 6.7836260795593261719 4.8597340583801269531 7.304935455322265625 9.1604394912719726562 10.645948410034179688 11.655411720275878906 11.700714111328125 11.59635162353515625 -9999
-9999 -9999 -9999 12.67284393310546875 13.583433151245117188 14.341852188110351562 14.372127532958984375 14.554780006408691406 14.581973075866699219 14.47022247314453125 14.24433135986328125 13.864728927612304688 13.056714057922363281 12.001521110534667969 11.941290855407714844 12.67206573486328125 13.052805900573730469 12.578121185302734375 11.841645240783691406 11.642805099487304688 11.825171470642089844 11.711897850036621094 11.628576278686523438 11.682980537414550781 11.7637786865234375 11.875123023986816406 11.954966545104980469 12.143977165222167969 12.645834922790527344 13.522230148315429688 15.167987823486328125 15.809336662292480469 15.951562881469726562 15.939234733581542969 15.371109962463378906 14.721360206604003906 14.497026443481445312 14.221442222595214844 14.273591041564941406 14.523365020751953125 14.902194023132324219 15.15236663818359375 15.470112800598144531 15.714787483215332031 15.690215110778808594 15.651819229125976562 16.1183319091796875 17.15618896484375 18.097471237182617188 18.705320358276367188 19.359989166259765625 19.88103485107421875 20.374820709228515625 20.573801040649414062 20.40869140625 20.125469207763671875 19.967437744140625 20.1341094970703125 20.113813400268554688 19.894039154052734375 19.697809219360351562 19.413867950439453125 19.074985504150390625 19.000738143920898438 19.592679977416992188 20.296909332275390625 21.284936904907226562 21.416383743286132812 20.865995407104492188 19.928125381469726562 19.248243331909179688 19.252740859985351562 19.055162429809570312 18.290807723999023438 17.857172012329101562 17.242456436157226562 16.1901092529296875 15.433683395385742188 14.398900032043457031 11.820795059204101562 10.200439453125 11.993953704833984375 14.747964859008789062 15.137434005737304688 12.971879005432128906 10.612772941589355469 10.212738990783691406 11.414963722229003906 12.00171661376953125 12.476369857788085938 12.880062103271484375 13.099135398864746094 14.032810211181640625 15.673605918884277344 16.438510894775390625 16.024717330932617188 15.4974822998046875 15.444339752197265625 16.750555038452148438 17.7294769287109375 16.483592987060546875 16.070573806762695312 17.724637985229492188 17.856718063354492188 16.787342071533203125 15.365858078002929688 14.009202957153320312 12.868575096130371094 12.261897087097167969 11.59265899658203125 10.596462249755859375 10.960520744323730469 11.397882461547851562 11.520093917846679688 11.583107948303222656 11.230587005615234375 9.5779085159301757812 9.1600427627563476562 9.835567474365234375 11.330849647521972656 10.896010398864746094 8.7486362457275390625 9.4412279129028320312 10.475846290588378906 11.127116203308105469 11.568735122680664062 11.144266128540039062 10.245859146118164062 -9999
-9999 -9999 -9999 13.005443572998046875 13.937247276306152344 14.546854019165039062 14.686334609985351562 14.790106773376464844 14.845256805419921875 14.644118309020996094 14.166506767272949219 13.482631683349609375 12.657010078430175781 12.085855484008789062 12.585390090942382812 13.582098007202148438 14.361154556274414062 13.961794853210449219 12.66705322265625 12.290011405944824219 13.047759056091308594 12.615499496459960938 12.064534187316894531 11.871625900268554688 11.867856025695800781 11.999179840087890625 12.002134323120117188 12.080180168151855469 12.435647010803222656 13.419155120849609375 14.464075088500976562 15.077198028564453125 15.354983329772949219 15.381319046020507812 14.208858489990234375 13.632294654846191406 13.653927803039550781 13.817371368408203125 14.333561897277832031 14.998238563537597656 15.402492523193359375 15.4588623046875 15.802883148193359375 15.992524147033691406 15.848936080932617188 15.712910652160644531 16.002552032470703125 16.98824310302734375 18.067638397216796875 18.617351531982421875 19.20624542236328125 19.597545623779296875 19.912204742431640625 20.242410659790039062 20.280427932739257812 20.154405593872070312 20.147314071655273438 20.340280532836914062 20.264329910278320312 19.809047698974609375 19.18354034423828125 18.620512008666992188 18.427995681762695312 18.739374160766601562 19.432031631469726562 20.284442901611328125 21.182891845703125 21.143070220947265625 20.46256256103515625 19.577646255493164062 19.060123443603515625 18.866289138793945312 19.114732742309570312 18.468534469604492188 17.928009033203125 17.201662063598632812 16.013269424438476562 14.570049285888671875 12.383426666259765625 10.788777351379394531 11.569890975952148438 13.847981452941894531 16.312742233276367188 16.08306884765625 13.860186576843261719 12.468960762023925781 10.845044136047363281 10.753993034362792969 11.378282546997070312 11.742633819580078125 12.211848258972167969 12.578101158142089844 13.28705596923828125 14.722547531127929688 15.166714668273925781 14.633997917175292969 13.718850135803222656 13.655724525451660156 15.110716819763183594 15.851082801818847656 14.908375740051269531 14.791086196899414062 15.877306938171386719 15.843373298645019531 15.256351470947265625 14.341619491577148438 13.543224334716796875 12.569799423217773438 12.519576072692871094 13.415911674499511719 13.731247901916503906 13.697032928466796875 13.564012527465820312 13.553704261779785156 13.668505668640136719 13.868496894836425781 13.163453102111816406 12.298952102661132812 12.044436454772949219 11.877227783203125 11.3208160400390625 10.920971870422363281 11.188391685485839844 11.254434585571289062 10.820444107055664062 10.00884246826171875 9.0625438690185546875 8.8733549118041992188 -9999
-9999 -9999 -9999 13.469597816467285156 14.265049934387207031 14.818423271179199219 14.996725082397460938 15.162962913513183594 15.300522804260253906 15.21883392333984375 14.604516983032226562 13.668553352355957031 12.914271354675292969 12.345577239990234375 12.82732391357421875 13.94266510009765625 14.4610748291015625 13.627086639404296875 12.449308395385742188 12.410501480102539062 13.303150177001953125 13.425672531127929688 13.317605972290039062 12.806608200073242188 12.116123199462890625 11.959131240844726562 12.050671577453613281 12.200522422790527344 12.280056953430175781 12.497017860412597656 12.918503761291503906 13.401859283447265625 13.660475730895996094 13.720004081726074219 13.341910362243652344 13.364419937133789062 13.61316680908203125 13.755064010620117188 14.310699462890625 15.272150039672851562 15.650214195251464844 15.689019203186035156 15.905957221984863281 16.02364349365234375 15.914914131164550781 15.842911720275878906 15.983674049377441406 16.643091201782226562 17.80187225341796875 18.455776214599609375 18.803897857666015625 19.00014495849609375 19.061222076416015625 19.170766830444335938 19.281694412231445312 19.577070236206054688 19.916934967041015625 20.1625823974609375 19.889926910400390625 19.030233383178710938 18.183095932006835938 17.881084442138671875 18.409727096557617188 19.004650115966796875 19.394529342651367188 20.2862396240234375 20.976093292236328125 20.818325042724609375 20.227865219116210938 19.496402740478515625 18.670269012451171875 18.375703811645507812 18.519521713256835938 18.172458648681640625 17.805334091186523438 16.871227264404296875 14.827527046203613281 12.168021202087402344 11.054574012756347656 12.415682792663574219 14.458107948303222656 16.247201919555664062 17.152265548706054688 16.926998138427734375 16.17138671875 14.879198074340820312 12.427913665771484375 11.220472335815429688 11.291968345642089844 11.498869895935058594 11.863842964172363281 12.403450965881347656 12.707149505615234375 13.324151992797851562 13.825010299682617188 13.688265800476074219 12.715445518493652344 12.376906394958496094 13.201730728149414062 13.499079704284667969 13.025571823120117188 13.01860809326171875 13.313703536987304688 13.268798828125 13.464589118957519531 12.913259506225585938 12.122172355651855469 11.664316177368164062 12.381472587585449219 13.700791358947753906 14.435808181762695312 14.397620201110839844 14.295534133911132812 14.421048164367675781 14.3928070068359375 14.186269760131835938 13.826616287231445312 13.248769760131835938 12.61289215087890625 11.929653167724609375 11.486874580383300781 11.081346511840820312 10.577193260192871094 10.096943855285644531 9.6897401809692382812 9.0490570068359375 8.4645700454711914062 8.8385457992553710938 -9999
-9999 -9999 -9999 12.908236503601074219 13.597673416137695312 14.453932762145996094 14.905698776245117188 15.301230430603027344 15.695649147033691406 15.996394157409667969 15.353943824768066406 14.297220230102539062 13.368215560913085938 12.664008140563964844 12.897103309631347656 13.880649566650390625 14.279278755187988281 13.474964141845703125 12.565608024597167969 12.460233688354492188 13.1572265625 13.92675018310546875 14.440245628356933594 14.041754722595214844 12.928476333618164062 12.173349380493164062 12.063624382019042969 12.180523872375488281 12.204402923583984375 12.275835990905761719 12.509253501892089844 12.583512306213378906 12.821290016174316406 12.972001075744628906 13.114985466003417969 13.785868644714355469 14.406939506530761719 14.465209007263183594 14.633012771606445312 15.096070289611816406 15.515326499938964844 15.844350814819335938 16.074121475219726562 16.207111358642578125 16.132442474365234375 15.943926811218261719 15.889506340026855469 16.138601303100585938 16.927959442138671875 17.748973846435546875 18.185297012329101562 18.236658096313476562 18.320934295654296875 18.631053924560546875 18.91011810302734375 19.396154403686523438 19.641506195068359375 19.373723983764648438 18.591180801391601562 17.790666580200195312 17.407400131225585938 17.807769775390625 18.914455413818359375 19.383214950561523438 19.635150909423828125 20.456373214721679688 20.80533599853515625 20.4735870361328125 20.03008270263671875 19.335802078247070312 17.672222137451171875 16.774866104125976562 16.609991073608398438 16.71854400634765625 17.188480377197265625 16.412029266357421875 14.366161346435546875 12.060324668884277344 11.966566085815429688 13.588785171508789062 15.961719512939453125 17.7484893798828125 17.731725692749023438 17.277421951293945312 17.082134246826171875 15.954243659973144531 13.521468162536621094 12.293498992919921875 12.026159286499023438 11.964518547058105469 12.080753326416015625 12.449762344360351562 12.643336296081542969 12.955249786376953125 13.309102058410644531 13.026223182678222656 12.255857467651367188 11.317048072814941406 10.933696746826171875 10.8871612548828125 10.995539665222167969 11.076324462890625 10.673525810241699219 10.349965095520019531 10.683638572692871094 10.567425727844238281 10.242012977600097656 10.273831367492675781 11.039797782897949219 12.183248519897460938 12.9837646484375 13.056584358215332031 12.939965248107910156 13.095693588256835938 13.109477043151855469 13.011950492858886719 12.776370048522949219 12.415156364440917969 11.857911109924316406 11.074558258056640625 10.497353553771972656 10.075357437133789062 9.2287158966064453125 8.9416637420654296875 9.1914300918579101562 9.167552947998046875 8.633174896240234375 8.3705692291259765625 -9999
-9999 -9999 -9999 12.051761627197265625 12.6977691650390625 13.770587921142578125 14.556283950805664062 15.135127067565917969 16.063802719116210938 16.932132720947265625 16.387937545776367188 14.846529960632324219 13.386758804321289062 13.020105361938476562 13.290089607238769531 14.177984237670898438 15.124586105346679688 14.631836891174316406 13.316019058227539062 12.707729339599609375 13.077700614929199219 14.050630569458007812 15.054667472839355469 14.270055770874023438 13.215190887451171875 12.344064712524414062 12.132063865661621094 12.44944000244140625 12.488679885864257812 12.557988166809082031 12.801679611206054688 12.56769561767578125 12.626447677612304688 12.765501976013183594 13.004560470581054688 13.604174613952636719 14.044252395629882812 14.303986549377441406 14.500151634216308594 14.653998374938964844 15.079196929931640625 15.388522148132324219 15.805929183959960938 16.470739364624023438 16.823116302490234375 16.491016387939453125 15.992030143737792969 15.804173469543457031 16.116424560546875 16.86919403076171875 17.515108108520507812 17.771883010864257812 18.066720962524414062 18.958120346069335938 19.319915771484375 19.230167388916015625 18.72470855712890625 17.993743896484375 17.42368316650390625 17.207736968994140625 17.369747161865234375 17.978977203369140625 18.809659957885742188 19.401178359985351562 19.987537384033203125 20.722158432006835938 20.897705078125 20.410058975219726562 19.705810546875 18.499158859252929688 16.375524520874023438 14.540703773498535156 13.703029632568359375 13.54952239990234375 13.747470855712890625 13.329808235168457031 12.288455963134765625 11.984256744384765625 13.213332176208496094 14.971177101135253906 16.787815093994140625 17.7974853515625 17.61501312255859375 17.087574005126953125 16.626783370971679688 15.363392829895019531 13.432473182678222656 12.543729782104492188 12.360577583312988281 12.427549362182617188 12.590916633605957031 12.854742050170898438 13.0026397705078125 13.072010993957519531 13.005789756774902344 12.533635139465332031 11.96164703369140625 10.908013343811035156 9.9012613296508789062 9.264492034912109375 9.4163122177124023438 9.2327566146850585938 8.53614044189453125 8.3801679611206054688 8.7442865371704101562 9.0481700897216796875 9.2974901199340820312 9.5993528366088867188 9.9879283905029296875 10.436902999877929688 10.963864326477050781 11.028964042663574219 10.895646095275878906 10.889033317565917969 10.843266487121582031 10.832761764526367188 10.69628143310546875 10.655728340148925781 10.361307144165039062 9.8147172927856445312 9.3301763534545898438 8.965129852294921875 8.653331756591796875 8.3220129013061523438 8.1648349761962890625 8.4974260330200195312 8.1855306625366210938 8.0575475692749023438 -9999
-9999 -9999 -9999 11.830461502075195312 12.282811164855957031 13.37726593017578125 14.394350051879882812 14.951300621032714844 16.106943130493164062 17.370914459228515625 17.255632400512695312 15.692955970764160156 14.286590576171875 13.955291748046875 13.872501373291015625 14.621502876281738281 15.866352081298828125 15.472681045532226562 13.901081085205078125 13.105351448059082031 13.551918983459472656 14.918569564819335938 16.3516387939453125 15.728741645812988281 14.693608283996582031 13.048052787780761719 12.241915702819824219 12.485593795776367188 12.790770530700683594 13.315413475036621094 13.551076889038085938 13.042531013488769531 12.710588455200195312 12.8065185546875 12.928800582885742188 13.096830368041992188 13.287805557250976562 13.521089553833007812 13.683391571044921875 13.784040451049804688 13.975659370422363281 14.188549995422363281 14.596575736999511719 15.41036224365234375 16.375860214233398438 16.657640457153320312 16.111053466796875 15.697523117065429688 15.755033493041992188 16.15484619140625 16.931507110595703125 17.872926712036132812 18.428319931030273438 19.323900222778320312 19.12703704833984375 18.207498550415039062 17.504350662231445312 17.168031692504882812 17.08428955078125 17.218572616577148438 17.908826828002929688 18.369110107421875 18.76775360107421875 19.490404129028320312 20.112821578979492188 20.8289031982421875 20.884481430053710938 20.198595046997070312 19.30730438232421875 17.70011138916015625 15.8522796630859375 14.335349082946777344 13.861063003540039062 14.219733238220214844 14.273008346557617188 13.25482940673828125 12.307886123657226562 13.301077842712402344 15.406406402587890625 16.631654739379882812 17.31996917724609375 17.789972305297851562 17.525964736938476562 16.75017547607421875 15.974493980407714844 14.997753143310546875 13.320916175842285156 12.25891876220703125 12.159206390380859375 12.444063186645507812 12.546983718872070312 12.700922012329101562 12.85425567626953125 12.839303970336914062 12.533952713012695312 12.113133430480957031 11.500383377075195312 10.687334060668945312 9.8807888031005859375 8.9912786483764648438 8.5018787384033203125 7.9196033477783203125 7.4669308662414550781 8.2612171173095703125 8.8269901275634765625 9.1515254974365234375 9.4364404678344726562 9.6703271865844726562 9.8468837738037109375 9.9551000595092773438 10.250935554504394531 10.227759361267089844 10.054386138916015625 10.023458480834960938 10.035955429077148438 9.99755096435546875 9.4561700820922851562 9.6310892105102539062 9.5794687271118164062 8.9132518768310546875 9.3563299179077148438 9.2031383514404296875 9.15331268310546875 8.3708896636962890625 7.2784466743469238281 7.2759604454040527344 7.7769360542297363281 8.0882501602172851562 -9999
-9999 -9999 -9999 12.003603935241699219 12.095860481262207031 12.847909927368164062 13.798117637634277344 14.577991485595703125 15.824327468872070312 17.322406768798828125 17.702808380126953125 16.422908782958984375 15.584074974060058594 15.540239334106445312 14.921417236328125 15.216206550598144531 16.481475830078125 16.156402587890625 14.432168006896972656 13.753373146057128906 14.539943695068359375 15.839125633239746094 17.627162933349609375 17.43769073486328125 15.059670448303222656 13.066008567810058594 12.3453521728515625 12.6748046875 13.360406875610351562 14.21062469482421875 14.449435234069824219 13.612351417541503906 13.204309463500976562 13.0145263671875 13.129868507385253906 13.29508209228515625 13.412481307983398438 13.454640388488769531 13.505415916442871094 13.644303321838378906 13.876590728759765625 14.023228645324707031 14.108570098876953125 14.4717864990234375 15.265826225280761719 15.786639213562011719 15.732169151306152344 15.845190048217773438 15.934482574462890625 16.309881210327148438 17.369327545166015625 18.427036285400390625 18.58560943603515625 18.538908004760742188 17.9649505615234375 17.26593780517578125 17.053487777709960938 17.022405624389648438 17.05638885498046875 17.70384979248046875 18.978063583374023438 19.37294769287109375 19.57717132568359375 19.942287445068359375 20.16338348388671875 20.866537094116210938 20.682123184204101562 19.796375274658203125 19.05059814453125 17.356227874755859375 15.705985069274902344 15.678965568542480469 16.718669891357421875 17.572185516357421875 17.4359130859375 15.2158966064453125 13.865563392639160156 15.588494300842285156 17.365863800048828125 17.748699188232421875 17.873226165771484375 18.21802520751953125 18.088876724243164062 17.284383773803710938 16.541070938110351562 15.07619476318359375 12.975892066955566406 11.372967720031738281 11.247220039367675781 11.587538719177246094 11.924900054931640625 12.362344741821289062 12.414043426513671875 12.335150718688964844 11.998515129089355469 11.497483253479003906 10.91820526123046875 10.275090217590332031 9.8726930618286132812 9.4614248275756835938 8.9707508087158203125 8.1263475418090820312 7.3515076637268066406 8.0680065155029296875 8.9717149734497070312 9.2109842300415039062 9.38162994384765625 9.5637226104736328125 9.7341012954711914062 9.8536405563354492188 10.084482192993164062 9.9605464935302734375 9.72454071044921875 9.7070760726928710938 9.7972497940063476562 9.881069183349609375 9.5834989547729492188 9.7159967422485351562 9.598453521728515625 8.4664335250854492188 9.3686695098876953125 9.6217641830444335938 8.9719562530517578125 7.0822305679321289062 7.9587993621826171875 8.4291839599609375 8.4028558731079101562 8.746715545654296875 -9999
-9999 -9999 -9999 12.286630630493164062 12.140936851501464844 12.509091377258300781 13.240878105163574219 14.254782676696777344 15.650803565979003906 17.099218368530273438 17.75165557861328125 17.008256912231445312 16.473577499389648438 16.499530792236328125 15.785154342651367188 15.283228874206542969 16.255514144897460938 16.282033920288085938 14.840948104858398438 14.495049476623535156 15.315382957458496094 16.234344482421875 17.501878738403320312 17.149862289428710938 14.235712051391601562 12.609399795532226562 12.4704132080078125 13.055377006530761719 13.896450042724609375 14.846215248107910156 15.502009391784667969 15.062116622924804688 14.303043365478515625 13.598329544067382812 13.578986167907714844 13.643507957458496094 13.721648216247558594 13.70751953125 13.700918197631835938 13.903075218200683594 14.344989776611328125 14.494322776794433594 14.296237945556640625 14.470506668090820312 14.860408782958984375 15.437953948974609375 15.837626457214355469 16.167695999145507812 16.548143386840820312 17.162014007568359375 18.041967391967773438 18.383726119995117188 17.858644485473632812 17.442579269409179688 17.1916961669921875 17.045709609985351562 16.9991607666015625 17.000978469848632812 17.422498703002929688 18.924160003662109375 20.004983901977539062 20.162488937377929688 20.337682723999023438 20.536821365356445312 20.56932830810546875 20.810297012329101562 20.052667617797851562 19.121625900268554688 18.363550186157226562 17.172121047973632812 16.803287506103515625 17.67552947998046875 18.54467010498046875 18.932241439819335938 18.174455642700195312 15.80279541015625 14.394518852233886719 15.163381576538085938 16.200048446655273438 16.947948455810546875 17.904691696166992188 18.850322723388671875 19.036802291870117188 18.153181076049804688 16.121690750122070312 14.004858970642089844 12.296322822570800781 10.781699180603027344 9.9073305130004882812 10.7327880859375 11.659832000732421875 12.030388832092285156 11.886667251586914062 11.739567756652832031 11.384188652038574219 10.872975349426269531 10.31015777587890625 9.7584743499755859375 9.5492067337036132812 9.4963140487670898438 9.2947950363159179688 8.3451385498046875 6.9591741561889648438 6.7886610031127929688 7.6740260124206542969 8.1741466522216796875 8.5026826858520507812 8.8070650100708007812 9.2637128829956054688 9.6187734603881835938 9.8167285919189453125 9.7116079330444335938 9.5675249099731445312 9.3971652984619140625 9.0905666351318359375 9.1644725799560546875 9.5037679672241210938 9.6950588226318359375 9.6174945831298828125 8.9099321365356445312 8.73824310302734375 9.3596057891845703125 8.5926427841186523438 6.8125095367431640625 8.8899936676025390625 8.9959955215454101562 8.5852575302124023438 8.7298574447631835938 -9999
-9999 -9999 -9999 12.747104644775390625 12.378553390502929688 12.431021690368652344 12.950094223022460938 13.855778694152832031 14.974165916442871094 15.954441070556640625 16.619428634643554688 16.590318679809570312 16.664739608764648438 17.029443740844726562 16.535345077514648438 15.713521003723144531 15.919054031372070312 16.356851577758789062 15.513482093811035156 15.331219673156738281 15.859462738037109375 16.851362228393554688 17.387964248657226562 16.567899703979492188 13.935519218444824219 12.628053665161132812 12.6461029052734375 13.511484146118164062 14.62636566162109375 15.846020698547363281 16.601617813110351562 16.147403717041015625 15.144488334655761719 14.437252998352050781 13.895848274230957031 13.806798934936523438 13.856113433837890625 13.963293075561523438 14.166640281677246094 14.597432136535644531 14.98325347900390625 14.793901443481445312 14.50493621826171875 14.58026123046875 14.898398399353027344 15.589758872985839844 16.194406509399414062 16.446483612060546875 17.006509780883789062 17.663356781005859375 17.84178924560546875 17.660581588745117188 17.25029754638671875 17.066049575805664062 17.008152008056640625 17.007818222045898438 16.980190277099609375 17.193586349487304688 18.509212493896484375 20.261655807495117188 20.670957565307617188 20.429012298583984375 20.501087188720703125 20.77680206298828125 20.931554794311523438 20.478302001953125 19.231111526489257812 18.434019088745117188 17.975185394287109375 17.898481369018554688 18.144916534423828125 17.749711990356445312 17.534536361694335938 18.380235671997070312 18.430955886840820312 16.749063491821289062 14.875887870788574219 15.13988494873046875 16.793888092041015625 18.072345733642578125 18.90534210205078125 19.096433639526367188 18.541959762573242188 17.834142684936523438 15.684827804565429688 13.671648025512695312 12.441638946533203125 11.510960578918457031 9.7108135223388671875 10.317427635192871094 11.367037773132324219 11.469964981079101562 11.500152587890625 11.235468864440917969 10.80341339111328125 10.262518882751464844 9.6920566558837890625 9.3290348052978515625 9.2351627349853515625 9.1586198806762695312 8.7063360214233398438 7.989643096923828125 7.2333636283874511719 6.1745266914367675781 5.7736530303955078125 6.2427358627319335938 6.905452728271484375 7.6997404098510742188 8.7708902359008789062 9.46620941162109375 9.6434373855590820312 9.6690540313720703125 9.7166585922241210938 9.6615705490112304688 8.968677520751953125 8.1828222274780273438 8.8144102096557617188 9.5000391006469726562 9.5135278701782226562 9.3075399398803710938 8.3810901641845703125 8.5878400802612304688 7.8180150985717773438 6.7027983665466308594 8.9126443862915039062 9.2079792022705078125 9.2595205307006835938 9.1952800750732421875 -9999
-9999 -9999 -9999 13.319171905517578125 12.805998802185058594 12.530261993408203125 12.828255653381347656 13.613787651062011719 14.532935142517089844 15.333833694458007812 16.216554641723632812 16.827268600463867188 17.29941558837890625 17.549371719360351562 16.907222747802734375 15.9847412109375 15.68149566650390625 16.464517593383789062 16.5524139404296875 16.55202484130859375 16.430286407470703125 16.928125381469726562 17.080831527709960938 16.425374984741210938 14.458934783935546875 13.1217041015625 12.793552398681640625 13.082480430603027344 14.355152130126953125 15.508945465087890625 16.23183441162109375 16.420557022094726562 16.384204864501953125 16.07891082763671875 15.414037704467773438 15.075764656066894531 14.866186141967773438 14.804682731628417969 14.842219352722167969 15.082963943481445312 15.125936508178710938 14.877370834350585938 14.684621810913085938 14.760695457458496094 14.9796142578125 15.404070854187011719 15.92368316650390625 16.266283035278320312 16.67012786865234375 17.120655059814453125 17.216646194458007812 17.249471664428710938 17.149921417236328125 16.999582290649414062 16.974145889282226562 16.961763381958007812 17.035425186157226562 17.926273345947265625 19.558893203735351562 20.368509292602539062 20.741336822509765625 20.58972930908203125 20.607946395874023438 20.7670745849609375 20.80818939208984375 20.167266845703125 19.20230865478515625 18.677469253540039062 18.643926620483398438 18.981884002685546875 18.544307708740234375 16.190395355224609375 14.961545944213867188 16.134765625 17.040166854858398438 17.152194976806640625 16.8001556396484375 17.687753677368164062 18.873212814331054688 19.313341140747070312 19.088335037231445312 18.396306991577148438 17.926965713500976562 17.01998138427734375 15.294173240661621094 13.100330352783203125 12.368425369262695312 11.919796943664550781 10.040853500366210938 8.97503662109375 10.052067756652832031 11.200020790100097656 11.265973091125488281 10.870135307312011719 10.2947998046875 9.62786865234375 9.0557451248168945312 8.9346027374267578125 8.9494581222534179688 8.7184152603149414062 8.250713348388671875 8.2971057891845703125 8.4815587997436523438 7.4237337112426757812 5.8158764839172363281 5.1049485206604003906 5.7856149673461914062 6.9225707054138183594 8.1950931549072265625 8.9890336990356445312 9.0009279251098632812 9.0647382736206054688 9.2810945510864257812 9.5500774383544921875 9.3051347732543945312 7.6925015449523925781 7.6171479225158691406 9.15526580810546875 9.3697671890258789062 9.2693243026733398438 8.7414608001708984375 7.4288115501403808594 6.5748496055603027344 6.4636950492858886719 8.7464351654052734375 9.2090969085693359375 9.3616666793823242188 9.4035596847534179688 -9999
-9999 -9999 -9999 13.923250198364257812 13.17870330810546875 12.83629608154296875 13.336185455322265625 14.284504890441894531 15.091644287109375 15.949533462524414062 17.179643630981445312 17.81621551513671875 17.706813812255859375 17.2418365478515625 16.45777130126953125 16.027469635009765625 16.027448654174804688 16.548336029052734375 17.009700775146484375 17.219396591186523438 16.674196243286132812 16.817790985107421875 17.048910140991210938 17.041444778442382812 15.878213882446289062 14.906945228576660156 13.520138740539550781 12.937720298767089844 13.377252578735351562 14.414632797241210938 15.011590003967285156 15.717681884765625 16.653116226196289062 16.7296295166015625 16.599796295166015625 16.710977554321289062 16.669782638549804688 16.168182373046875 16.079925537109375 15.990018844604492188 15.388909339904785156 15.090027809143066406 15.194853782653808594 15.125050544738769531 15.065249443054199219 15.213580131530761719 15.432452201843261719 15.768261909484863281 16.279939651489257812 16.745138168334960938 16.9960174560546875 17.022893905639648438 16.84767913818359375 16.753194808959960938 16.843782424926757812 16.90317535400390625 17.536991119384765625 18.8951263427734375 19.603694915771484375 19.692476272583007812 20.290943145751953125 20.407932281494140625 20.42493438720703125 20.555501937866210938 20.364955902099609375 19.833522796630859375 19.548116683959960938 19.282396316528320312 19.141744613647460938 18.830228805541992188 17.307603836059570312 14.37085723876953125 13.288659095764160156 14.55419158935546875 15.89086151123046875 17.177633285522460938 18.385066986083984375 18.945016860961914062 19.065687179565429688 18.960142135620117188 18.115419387817382812 17.476139068603515625 17.282907485961914062 15.696316719055175781 13.166837692260742188 12.0249786376953125 11.341614723205566406 11.0557861328125 10.139535903930664062 8.6785793304443359375 8.6245012283325195312 10.301466941833496094 10.227171897888183594 9.8215274810791015625 9.456172943115234375 8.97857666015625 8.4255504608154296875 8.3621120452880859375 8.4794015884399414062 8.2324705123901367188 8.0594263076782226562 8.3764171600341796875 8.7769994735717773438 8.5743122100830078125 7.2228102684020996094 5.1345243453979492188 4.7181539535522460938 5.1784868240356445312 6.0201792716979980469 7.2132482528686523438 7.4056315422058105469 7.6994171142578125 8.3330783843994140625 9.110137939453125 9.2794981002807617188 8.1426229476928710938 6.3700089454650878906 8.32703399658203125 9.06717681884765625 8.936717987060546875 8.7829113006591796875 7.3379526138305664062 5.067413330078125 6.3234658241271972656 8.6261987686157226562 8.9493656158447265625 9.2868986129760742188 9.4001617431640625 -9999
-9999 -9999 -9999 14.718061447143554688 13.495245933532714844 13.062292098999023438 13.94753265380859375 14.929390907287597656 15.437749862670898438 16.236133575439453125 17.404775619506835938 17.419683456420898438 16.92366790771484375 16.622646331787109375 16.3349761962890625 16.417512893676757812 16.552816390991210938 16.742237091064453125 16.996738433837890625 17.198856353759765625 17.025995254516601562 16.959611892700195312 17.079984664916992188 17.430871963500976562 17.2263031005859375 16.814252853393554688 14.804692268371582031 13.174773216247558594 13.485155105590820312 14.790996551513671875 15.737287521362304688 16.002504348754882812 16.003993988037109375 16.381669998168945312 16.680437088012695312 16.92922210693359375 17.0687255859375 16.809373855590820312 16.550970077514648438 16.177875518798828125 16.0144500732421875 16.306318283081054688 16.107191085815429688 15.476986885070800781 15.143854141235351562 15.173692703247070312 15.308781623840332031 15.732358932495117188 16.346197128295898438 16.595676422119140625 16.641530990600585938 16.613742828369140625 16.55315399169921875 16.563856124877929688 16.706371307373046875 17.256071090698242188 18.419124603271484375 19.175800323486328125 19.036367416381835938 19.334226608276367188 19.752817153930664062 19.695941925048828125 19.508115768432617188 19.952951431274414062 19.9970703125 19.837261199951171875 19.651691436767578125 19.20238494873046875 18.51425933837890625 17.235668182373046875 14.496065139770507812 12.087244033813476562 12.743211746215820312 14.843349456787109375 16.553384780883789062 17.744386672973632812 18.223873138427734375 18.0785675048828125 17.7652435302734375 17.116748809814453125 16.10919189453125 15.798490524291992188 15.198575973510742188 14.001983642578125 10.9658660888671875 9.7992420196533203125 9.8539571762084960938 9.4787693023681640625 9.0850391387939453125 8.144969940185546875 7.9317293167114257812 8.7803592681884765625 8.2008008956909179688 8.2595844268798828125 8.45806121826171875 8.3521261215209960938 7.9300546646118164062 7.9138312339782714844 8.151180267333984375 7.9661936759948730469 7.8783602714538574219 8.0575656890869140625 8.314304351806640625 8.4761857986450195312 7.839893341064453125 5.8381199836730957031 4.6081547737121582031 4.23401641845703125 4.1306338310241699219 4.8273997306823730469 5.1536035537719726562 5.8741006851196289062 6.8880357742309570312 7.8610010147094726562 8.8840179443359375 8.6783590316772460938 5.87860870361328125 5.9634900093078613281 7.723667144775390625 7.7325763702392578125 7.4406576156616210938 6.607341766357421875 4.5750246047973632812 5.9792218208312988281 8.066951751708984375 8.9024715423583984375 9.2410297393798828125 9.3818264007568359375 -9999
-9999 -9999 -9999 15.11673736572265625 13.641021728515625 13.196787834167480469 14.096146583557128906 14.9316253662109375 15.501856803894042969 16.4839324951171875 17.319309234619140625 17.060291290283203125 16.6900787353515625 16.603748321533203125 16.618585586547851562 16.815698623657226562 16.926319122314453125 16.964939117431640625 16.939838409423828125 16.960306167602539062 17.074502944946289062 17.08966064453125 17.100317001342773438 17.314500808715820312 17.476034164428710938 16.981777191162109375 14.936540603637695312 13.361901283264160156 13.834278106689453125 15.060945510864257812 16.647687911987304688 17.357738494873046875 16.830732345581054688 16.691553115844726562 16.807088851928710938 17.168775558471679688 17.35402679443359375 17.208759307861328125 16.861467361450195312 16.6151885986328125 16.897785186767578125 17.48406982421875 17.161602020263671875 16.0460662841796875 15.339501380920410156 15.204652786254882812 15.404867172241210938 15.881735801696777344 16.243144989013671875 16.363719940185546875 16.414457321166992188 16.450031280517578125 16.470846176147460938 16.521467208862304688 16.68650054931640625 17.591436386108398438 18.621997833251953125 18.707244873046875 18.635278701782226562 19.193414688110351562 19.471448898315429688 19.218084335327148438 18.315164566040039062 18.198451995849609375 18.908174514770507812 19.663751602172851562 19.132770538330078125 17.314012527465820312 15.441820144653320312 14.085000038146972656 12.00034332275390625 11.0874481201171875 13.041933059692382812 15.8019561767578125 17.369922637939453125 16.355604171752929688 15.639523506164550781 15.720972061157226562 14.905939102172851562 14.548026084899902344 14.280462265014648438 13.703124046325683594 12.813403129577636719 12.050368309020996094 10.473828315734863281 8.7642927169799804688 7.6963200569152832031 7.1352853775024414062 7.3198986053466796875 7.1427454948425292969 7.2584543228149414062 7.7567729949951171875 6.9580092430114746094 7.4854674339294433594 7.8754930496215820312 7.6480360031127929688 7.2948207855224609375 7.6351723670959472656 7.89569854736328125 7.9025626182556152344 7.9586730003356933594 8.0024824142456054688 8.0588092803955078125 8.1035680770874023438 7.7636957168579101562 6.9447464942932128906 6.3269495964050292969 5.9537672996520996094 5.3878312110900878906 4.9528441429138183594 4.5327277183532714844 4.1503281593322753906 4.954387664794921875 6.2201995849609375 7.633754730224609375 8.3843278884887695312 6.3797044754028320312 3.9568436145782470703 5.5412487983703613281 5.0062694549560546875 4.4693851470947265625 4.0408663749694824219 4.3162817955017089844 6.5572500228881835938 8.75186920166015625 9.2763156890869140625 9.3577136993408203125 9.410343170166015625 -9999
-9999 -9999 -9999 15.656537055969238281 14.281750679016113281 13.315213203430175781 14.014146804809570312 15.072109222412109375 16.182382583618164062 17.191450119018554688 17.636312484741210938 17.581769943237304688 17.426477432250976562 17.31871795654296875 17.26956939697265625 17.38861083984375 17.41091156005859375 17.377010345458984375 17.201555252075195312 16.788969039916992188 16.655914306640625 16.719190597534179688 16.799732208251953125 16.899274826049804688 17.02051544189453125 16.539274215698242188 14.4983978271484375 13.489625930786132812 14.126331329345703125 15.369297027587890625 16.984790802001953125 17.761804580688476562 17.663343429565429688 17.482675552368164062 17.456211090087890625 17.66730499267578125 17.820314407348632812 17.956628799438476562 17.591518402099609375 17.00246429443359375 16.912527084350585938 17.280834197998046875 17.344394683837890625 16.3379974365234375 15.688671112060546875 15.395329475402832031 15.498753547668457031 15.8187408447265625 16.113405227661132812 16.3502960205078125 16.409250259399414062 16.429901123046875 16.486192703247070312 16.8537750244140625 17.015203475952148438 17.224946975708007812 17.91086578369140625 18.025014877319335938 18.409521102905273438 18.97226715087890625 19.482509613037109375 19.336496353149414062 17.9174346923828125 16.143260955810546875 16.218858718872070312 17.575220108032226562 16.91226959228515625 13.964689254760742188 11.910474777221679688 11.474225044250488281 10.503340721130371094 11.421097755432128906 14.721282005310058594 16.850542068481445312 16.202716827392578125 14.037508964538574219 13.124414443969726562 13.042838096618652344 12.893691062927246094 13.197109222412109375 12.887359619140625 12.298007965087890625 11.869912147521972656 11.348122596740722656 10.357805252075195312 9.1274347305297851562 7.7564854621887207031 6.7325978279113769531 6.1106657981872558594 6.2345037460327148438 6.2544341087341308594 6.743190765380859375 6.7626214027404785156 7.1941480636596679688 7.2456564903259277344 6.8028655052185058594 6.8591127395629882812 7.5270485877990722656 7.7759890556335449219 7.949993133544921875 8.1170625686645507812 8.1512165069580078125 8.0894184112548828125 7.9003467559814453125 7.7081670761108398438 7.5444111824035644531 7.5084700584411621094 7.4379973411560058594 7.2884316444396972656 7.0192275047302246094 6.4721460342407226562 3.8340451717376708984 2.7996304035186767578 4.069805145263671875 5.2167367935180664062 6.4750685691833496094 6.0530138015747070312 3.6251316070556640625 3.1556317806243896484 2.8114702701568603516 3.1995232105255126953 4.4392261505126953125 6.3446202278137207031 7.9864058494567871094 9.2292165756225585938 9.4757976531982421875 9.4838123321533203125 9.4623317718505859375 -9999
-9999 -9999 -9999 16.2110137939453125 14.692610740661621094 13.462482452392578125 13.987746238708496094 15.201386451721191406 16.756748199462890625 17.809282302856445312 17.9960479736328125 18.072805404663085938 18.073511123657226562 18.007457733154296875 17.912479400634765625 17.916799545288085938 17.89051055908203125 17.883449554443359375 17.75321197509765625 17.262939453125 16.617496490478515625 16.158422470092773438 16.09168243408203125 16.122772216796875 16.093290328979492188 15.711089134216308594 14.303586959838867188 13.614798545837402344 14.293951988220214844 15.583521842956542969 16.89984893798828125 17.542985916137695312 17.77864837646484375 17.785310745239257812 17.812427520751953125 17.964044570922851562 18.087512969970703125 18.147233963012695312 17.991291046142578125 17.91292572021484375 17.536737442016601562 17.078662872314453125 16.97768402099609375 16.238164901733398438 16.07567596435546875 15.685651779174804688 15.568134307861328125 15.677623748779296875 15.961589813232421875 16.254991531372070312 16.390169143676757812 16.537740707397460938 17.2091064453125 18.268095016479492188 18.245113372802734375 17.431365966796875 17.485433578491210938 17.52648162841796875 18.100582122802734375 18.94176483154296875 19.62363433837890625 19.450000762939453125 17.885791778564453125 15.12737274169921875 13.555115699768066406 13.986408233642578125 13.575742721557617188 11.144689559936523438 9.6804046630859375 9.3578386306762695312 9.5211915969848632812 12.0590057373046875 15.158140182495117188 15.605592727661132812 14.141721725463867188 12.4566802978515625 11.797034263610839844 12.339193344116210938 13.065775871276855469 12.76586151123046875 12.314818382263183594 12.102580070495605469 11.61474609375 11.13581085205078125 10.491950035095214844 10.038298606872558594 8.795948028564453125 7.6073470115661621094 6.0258021354675292969 5.1027951240539550781 4.745395660400390625 5.6170859336853027344 6.6619701385498046875 6.6804194450378417969 6.437129974365234375 5.9579491615295410156 6.2997999191284179688 6.9066781997680664062 7.1257328987121582031 7.4749164581298828125 7.78101348876953125 8.03057098388671875 8.1753416061401367188 7.827106475830078125 7.5461268424987792969 7.3958120346069335938 7.2364654541015625 7.1934103965759277344 7.2543025016784667969 7.6272015571594238281 7.7782540321350097656 5.421016693115234375 2.7308840751647949219 1.9855648279190063477 2.6716184616088867188 4.0999469757080078125 3.91368865966796875 2.7978153228759765625 1.714098811149597168 3.3012356758117675781 5.265460968017578125 7.4483313560485839844 9.0039625167846679688 9.2358961105346679688 9.4687128067016601562 9.548549652099609375 9.47325897216796875 9.4570703506469726562 -9999
-9999 -9999 -9999 16.188419342041015625 14.440507888793945312 13.519657135009765625 14.166577339172363281 15.304927825927734375 16.842731475830078125 18.065202713012695312 18.189117431640625 18.314962387084960938 18.394914627075195312 18.395999908447265625 18.314416885375976562 18.262014389038085938 18.173864364624023438 18.055234909057617188 17.940679550170898438 17.705560684204101562 17.078784942626953125 16.436487197875976562 16.042629241943359375 15.807934761047363281 15.321096420288085938 14.635137557983398438 13.973649024963378906 13.7055511474609375 14.307729721069335938 15.407907485961914062 16.544260025024414062 17.38694000244140625 17.833799362182617188 18.020460128784179688 18.203142166137695312 18.330144882202148438 18.32076263427734375 18.280651092529296875 18.822038650512695312 19.323345184326171875 18.320486068725585938 16.8557281494140625 16.386045455932617188 16.243015289306640625 16.442998886108398438 16.433790206909179688 16.057233810424804688 15.782767295837402344 15.873430252075195312 16.024553298950195312 16.183879852294921875 16.737545013427734375 17.839960098266601562 18.733501434326171875 18.8884429931640625 18.45148468017578125 18.286907196044921875 18.024381637573242188 18.413881301879882812 19.282093048095703125 19.6694793701171875 19.3021240234375 17.9279632568359375 15.579362869262695312 13.0859527587890625 11.884004592895507812 11.331685066223144531 10.416395187377929688 10.011406898498535156 9.0059528350830078125 9.14766693115234375 12.071788787841796875 14.209189414978027344 13.949884414672851562 11.982241630554199219 10.326701164245605469 10.991456031799316406 12.5792694091796875 13.034218788146972656 12.985987663269042969 12.932921409606933594 12.470125198364257812 11.920224189758300781 11.202567100524902344 10.600466728210449219 10.269664764404296875 8.840122222900390625 7.58075714111328125 6.2706942558288574219 4.783939361572265625 4.0000452995300292969 4.78099822998046875 5.5072832107543945312 5.0590529441833496094 4.9161543846130371094 4.866054534912109375 5.4440832138061523438 6.1498713493347167969 6.5036349296569824219 6.8479590415954589844 7.187366485595703125 7.58060455322265625 7.9658427238464355469 7.7912693023681640625 7.5900125503540039062 7.4550328254699707031 6.9940581321716308594 6.9647297859191894531 6.9947042465209960938 6.8351268768310546875 6.7198443412780761719 5.685459136962890625 3.6143307685852050781 2.3116819858551025391 1.5979913473129272461 2.4531219005584716797 2.5184221267700195312 1.8205419778823852539 2.2568490505218505859 6.1852426528930664062 8.33484649658203125 8.6901197433471679688 9.2636356353759765625 9.4674777984619140625 9.5133657455444335938 9.4747447967529296875 9.3826656341552734375 9.354827880859375 -9999
-9999 -9999 16.512948989868164062 15.796647071838378906 14.222911834716796875 13.557813644409179688 14.435647010803222656 15.593357086181640625 17.051298141479492188 18.12613677978515625 18.425107955932617188 18.918416976928710938 19.130804061889648438 19.060487747192382812 18.844182968139648438 18.626811981201171875 18.301301956176757812 17.978588104248046875 17.572603225708007812 17.332853317260742188 17.0164642333984375 16.636470794677734375 16.38834381103515625 16.215204238891601562 15.493682861328125 14.298127174377441406 13.819733619689941406 13.739643096923828125 14.290163993835449219 15.787585258483886719 17.226776123046875 18.0757904052734375 18.51789093017578125 18.416616439819335938 18.41733551025390625 18.493680953979492188 18.565435409545898438 19.146329879760742188 19.763238906860351562 19.119520187377929688 17.493692398071289062 16.468660354614257812 16.381658554077148438 16.462575912475585938 16.8189849853515625 16.913934707641601562 16.168939590454101562 15.873987197875976562 15.939393043518066406 16.22995758056640625 16.638458251953125 16.749483108520507812 17.00002288818359375 17.487575531005859375 18.142492294311523438 18.555231094360351562 18.738870620727539062 18.830537796020507812 19.181854248046875 19.611028671264648438 19.59529876708984375 18.92546844482421875 17.46137237548828125 15.638887405395507812 14.083174705505371094 13.176456451416015625 12.285117149353027344 12.08739471435546875 12.365888595581054688 10.635376930236816406 8.8525915145874023438 11.145012855529785156 13.317135810852050781 13.4463958740234375 11.302549362182617188 9.3546438217163085938 10.567158699035644531 12.021439552307128906 12.180310249328613281 12.515944480895996094 12.493313789367675781 12.15499114990234375 11.642304420471191406 11.1640472412109375 10.814816474914550781 10.204970359802246094 9.1691713333129882812 8.5367612838745117188 8.068607330322265625 7.2269597053527832031 5.3512635231018066406 3.6705265045166015625 4.1972494125366210938 4.8958940505981445312 5.3819217681884765625 5.7118015289306640625 6.0906934738159179688 6.6781497001647949219 7.0470318794250488281 7.3465676307678222656 7.504886627197265625 7.4978756904602050781 7.7212972640991210938 7.8671498298645019531 7.9351830482482910156 7.8543682098388671875 7.3718776702880859375 7.5104570388793945312 7.5960907936096191406 7.1387968063354492188 6.3483967781066894531 5.3745436668395996094 5.0085248947143554688 4.9181671142578125 3.2054095268249511719 2.4159603118896484375 1.4110559225082397461 1.0766350030899047852 3.1896276473999023438 7.61107635498046875 9.078716278076171875 8.9087877273559570312 9.1283168792724609375 9.320743560791015625 9.324344635009765625 9.1583528518676757812 8.8370847702026367188 8.700023651123046875 -9999
-9999 -9999 15.848423004150390625 15.550087928771972656 14.490496635437011719 13.8262939453125 14.588165283203125 16.143596649169921875 17.5256195068359375 18.292196273803710938 18.972066879272460938 19.690402984619140625 19.926401138305664062 19.718999862670898438 19.249553680419921875 18.81861114501953125 18.292192459106445312 17.843395233154296875 17.255773544311523438 16.819608688354492188 16.3819732666015625 16.055238723754882812 16.0621337890625 15.779988288879394531 15.124699592590332031 14.364459037780761719 14.133901596069335938 13.961233139038085938 14.270955085754394531 15.52672576904296875 16.9900360107421875 18.270704269409179688 18.96215057373046875 18.666133880615234375 18.541584014892578125 18.583513259887695312 18.558910369873046875 19.0797271728515625 18.85791015625 17.764627456665039062 16.909891128540039062 16.618730545043945312 16.595788955688476562 16.609729766845703125 16.811248779296875 16.686056137084960938 16.027540206909179688 16.034839630126953125 16.30218505859375 17.316852569580078125 18.376062393188476562 18.039461135864257812 16.799560546875 16.7322845458984375 17.06168365478515625 17.544485092163085938 18.010194778442382812 18.68630218505859375 19.53562164306640625 19.83554840087890625 19.575969696044921875 18.6715545654296875 17.335170745849609375 16.483560562133789062 16.37635040283203125 15.942866325378417969 14.543396949768066406 13.30881500244140625 12.677175521850585938 10.815920829772949219 8.3033809661865234375 9.654033660888671875 12.281737327575683594 12.785655021667480469 10.657659530639648438 8.4815244674682617188 9.3704776763916015625 10.828896522521972656 11.887900352478027344 12.35125732421875 12.084527015686035156 11.595800399780273438 11.162049293518066406 10.817231178283691406 10.828098297119140625 10.392290115356445312 9.5086469650268554688 9.0066356658935546875 8.6665058135986328125 8.2465372085571289062 6.3728947639465332031 4.5618262290954589844 6.2405438423156738281 7.2041449546813964844 7.289691925048828125 7.3336176872253417969 7.2175726890563964844 7.3780698776245117188 7.5978870391845703125 7.8963918685913085938 8.1389827728271484375 7.9356937408447265625 7.7803659439086914062 7.8499355316162109375 8.020061492919921875 8.0659990310668945312 7.9219303131103515625 8.0847234725952148438 8.3172121047973632812 8.1013994216918945312 7.350452423095703125 6.4555253982543945312 7.2345213890075683594 7.3081121444702148438 6.2503447532653808594 4.2484240531921386719 0.89312648773193359375 0.69415301084518432617 3.9436430931091308594 8.1831502914428710938 9.0970325469970703125 9.016117095947265625 9.207927703857421875 9.1153974533081054688 8.7832746505737304688 8.1741180419921875 7.2878971099853515625 6.8951821327209472656 -9999
-9999 -9999 14.608617782592773438 14.482509613037109375 14.118340492248535156 14.124009132385253906 15.065294265747070312 16.590517044067382812 17.68465423583984375 18.501974105834960938 19.264081954956054688 19.848020553588867188 19.929746627807617188 19.65790557861328125 19.06402587890625 18.528369903564453125 18.040557861328125 17.694629669189453125 17.43946075439453125 17.066694259643554688 16.27880859375 15.624433517456054688 15.749840736389160156 15.492963790893554688 14.995896339416503906 14.647115707397460938 14.651372909545898438 14.352396011352539062 14.4503021240234375 15.418613433837890625 16.336828231811523438 17.630743026733398438 18.603540420532226562 18.619464874267578125 18.6840362548828125 18.47719573974609375 18.121212005615234375 17.831010818481445312 17.421926498413085938 17.1244354248046875 17.088098526000976562 16.970796585083007812 16.799226760864257812 16.689775466918945312 16.570001602172851562 16.303777694702148438 16.4054107666015625 17.267644882202148438 17.655033111572265625 18.285779953002929688 18.741235733032226562 18.847196578979492188 17.672842025756835938 16.899660110473632812 16.66588592529296875 16.806964874267578125 17.12103271484375 17.950288772583007812 19.394458770751953125 20.132898330688476562 19.8302001953125 18.983377456665039062 18.429037094116210938 18.386095046997070312 18.109006881713867188 16.833423614501953125 14.855501174926757812 12.736878395080566406 11.135854721069335938 9.6768779754638671875 7.7348337173461914062 7.9440836906433105469 10.374372482299804688 11.176730155944824219 9.4342279434204101562 7.68350982666015625 9.1913890838623046875 10.473756790161132812 11.654645919799804688 12.025913238525390625 11.44615936279296875 11.03033447265625 10.445705413818359375 9.9599599838256835938 9.8078184127807617188 9.8990564346313476562 9.5501852035522460938 9.1659460067749023438 8.8583536148071289062 8.6820049285888671875 7.052036285400390625 4.707149505615234375 6.1342606544494628906 7.9498262405395507812 8.4180974960327148438 8.5461893081665039062 8.3390874862670898438 8.2273311614990234375 8.3976802825927734375 8.6723737716674804688 8.8512821197509765625 8.6146192550659179688 8.3121461868286132812 8.2299365997314453125 8.3291730880737304688 8.49338531494140625 8.5978450775146484375 8.718364715576171875 8.9901437759399414062 8.5680475234985351562 7.9015550613403320312 7.3701829910278320312 8.1063337326049804688 8.1843881607055664062 7.3920245170593261719 4.1714725494384765625 0.79674357175827026367 1.7155917882919311523 5.2154765129089355469 8.45233154296875 9.0407047271728515625 8.83782958984375 8.7269887924194335938 8.178432464599609375 7.39040374755859375 6.5641856193542480469 5.8836231231689453125 -9999 -9999
-9999 -9999 14.660104751586914062 14.220064163208007812 13.936872482299804688 14.446216583251953125 15.716410636901855469 16.763164520263671875 17.605115890502929688 18.380346298217773438 18.797220230102539062 19.060041427612304688 18.983310699462890625 18.792837142944335938 18.322584152221679688 18.009403228759765625 17.799661636352539062 17.691381454467773438 17.801685333251953125 17.636861801147460938 16.69499969482421875 15.949117660522460938 16.239879608154296875 16.533763885498046875 16.066967010498046875 15.360258102416992188 15.315126419067382812 14.754271507263183594 14.270205497741699219 14.544306755065917969 15.134053230285644531 16.314004898071289062 17.446691513061523438 17.743696212768554688 17.80318450927734375 17.785139083862304688 17.668630599975585938 17.41410064697265625 17.2923583984375 17.356077194213867188 17.423793792724609375 17.26392364501953125 16.962732315063476562 16.644931793212890625 16.473661422729492188 16.8459930419921875 18.320657730102539062 19.994907379150390625 19.717136383056640625 18.982606887817382812 18.77527618408203125 18.879194259643554688 18.319887161254882812 17.3135986328125 16.967702865600585938 16.811628341674804688 16.855365753173828125 17.509548187255859375 18.899341583251953125 20.018953323364257812 20.06288909912109375 19.341053009033203125 18.726419448852539062 17.870897293090820312 16.775186538696289062 15.546754837036132812 13.971943855285644531 11.624741554260253906 9.4462175369262695312 8.4230184555053710938 7.7749152183532714844 7.08284759521484375 7.6892681121826171875 8.359737396240234375 8.1395473480224609375 6.8172669410705566406 8.279994964599609375 9.4805440902709960938 10.364025115966796875 11.040625572204589844 10.97463226318359375 10.538671493530273438 9.4357624053955078125 8.2077617645263671875 7.2406477928161621094 7.8113741874694824219 8.6914043426513671875 8.9373979568481445312 8.8567104339599609375 8.3460721969604492188 6.8288908004760742188 4.3423070907592773438 4.7820200920104980469 6.9652237892150878906 7.7780942916870117188 8.3591470718383789062 8.7872247695922851562 8.8892269134521484375 8.8678388595581054688 9.1152563095092773438 9.3095083236694335938 9.1939134597778320312 9.0087823867797851562 9.017024993896484375 9.049381256103515625 9.1254329681396484375 9.2061614990234375 9.3255825042724609375 9.4100055694580078125 8.774868011474609375 8.0602369308471679688 7.3461055755615234375 7.7254366874694824219 7.9667825698852539062 7.1485757827758789062 3.1313912868499755859 1.0112975835800170898 4.0167164802551269531 7.2210230827331542969 8.5253658294677734375 8.46826934814453125 7.8356432914733886719 7.1944222450256347656 6.351032257080078125 5.6338400840759277344 5.2668676376342773438 5.1969585418701171875 -9999 -9999
